-9.022 68 132.834
-9.046 68 132.818
-9.072 68 132.814
-9.1 68 132.808
-9.124 68 132.8
-9.152 68 132.784
-9.174 68 132.772
-9.202 68 132.762
-9.224 68 132.754
-9.252 68 132.744
-9.276 68 132.734
-9.304 68 132.728
-9.328 68 132.722
-9.352 68 132.702
-9.378 68 132.682
-9.404 68 132.672
-9.43 68 132.664
-9.454 68 132.652
-9.48 68 132.646
-9.508 68 132.632
-9.532 68 132.62
-9.558 68 132.608
-9.582 68 132.606
-9.608 68 132.59
-9.634 68 132.584
-9.658 68 132.576
-9.684 68 132.562
-9.708 68 132.552
-9.734 68 132.546
-9.762 68 132.538
-9.786 68 132.532
-9.812 68 132.512
-9.836 68 132.496
-9.86 68 132.484
-9.888 68 132.47
-9.912 68 132.462
-9.938 68 132.462
-9.964 68 132.462
-9.988 68 132.448
-10.016 68 132.428
-10.04 68 132.422
-10.068 68 132.42
-10.092 68 132.416
-10.118 68 132.402
-10.14 68 132.386
-10.168 68 132.374
-10.192 68 132.366
-10.22 68 132.356
-10.242 68 132.352
-10.268 68 132.342
-10.292 68 132.326
-10.32 68 132.306
-10.344 68 132.298
-10.37 68 132.282
-10.394 68 132.278
-10.42 68 132.268
-10.446 68 132.256
-10.47 68 132.25
-10.496 68 132.248
-10.524 68 132.238
-10.546 68 132.22
-10.572 68 132.204
-10.598 68 132.192
-10.624 68 132.186
-10.648 68 132.184
-10.674 68 132.166
-10.698 68 132.148
-10.726 68 132.136
-10.75 68 132.136
-10.776 68 132.12
-10.798 68 132.108
-10.826 68 132.09
-10.85 68 132.084
-10.876 68 132.08
-10.9 68 132.072
-10.926 68 132.066
-10.95 68 132.052
-10.976 68 132.034
-11.002 68 132.022
-11.026 68 132.014
-11.052 68 132.012
-11.078 68 132.006
-11.102 68 132.004
-11.128 68 131.984
-11.152 68 131.956
-11.18 68 131.928
-11.204 68 131.926
-11.23 68 131.922
-11.254 68 131.916
-11.28 68 131.902
-11.304 68 131.888
-11.33 68 131.874
-11.354 68 131.86
-11.382 68 131.856
-11.404 68 131.854
-11.43 68 131.854
-11.456 68 131.846
-11.482 68 131.834
-11.504 68 131.822
-11.53 68 131.806
-11.556 68 131.796
-11.582 68 131.788
-11.606 68 131.776
-11.634 68 131.758
-11.656 68 131.752
-11.684 68 131.74
-11.706 68 131.734
-11.732 68 131.734
-11.756 68 131.716
-11.784 68 131.694
-11.808 68 131.69
-11.834 68 131.69
-11.858 68 131.68
-11.882 68 131.656
-11.908 68 131.644
-11.934 68 131.636
-11.958 68 131.624
-11.982 68 131.618
-12.008 68 131.616
-12.034 68 131.6
-12.058 68 131.58
-12.084 68 131.564
-12.108 68 131.552
-12.132 68 131.548
-12.16 68 131.544
-12.186 68 131.532
-12.21 68 131.524
-12.236 68 131.512
-12.258 68 131.502
-12.284 68 131.496
-12.31 68 131.488
-12.336 68 131.474
-12.36 68 131.464
-12.384 68 131.452
-12.41 68 131.432
-12.436 68 131.422
-12.46 68 131.416
-12.486 68 131.406
-12.51 68 131.396
-12.536 68 131.386
-12.56 68 131.384
-12.586 68 131.38
-12.612 68 131.376
-12.638 68 131.362
-12.66 68 131.346
-12.684 68 131.328
-12.712 68 131.32
-12.736 68 131.31
-12.762 68 131.302
-12.786 68 131.29
-12.81 68 131.278
-12.838 68 131.274
-12.86 68 131.27
-12.888 68 131.256
-12.912 68 131.24
-12.938 68 131.228
-12.96 68 131.222
-12.986 68 131.218
-13.012 68 131.21
-13.036 68 131.192
-13.06 68 131.18
-13.086 68 131.168
-13.112 68 131.16
-13.136 68 131.146
-13.16 68 131.13
-13.186 68 131.112
-13.212 68 131.1
-13.238 68 131.086
-13.26 68 131.07
-13.286 68 131.06
-13.31 68 131.06
-13.336 68 131.058
-13.36 68 131.054
-13.388 68 131.036
-13.41 68 131.024
-13.436 68 131.008
-13.46 68 131.006
-13.484 68 131.002
-13.51 68 131
-13.536 68 130.984
-13.56 68 130.97
-13.584 68 130.96
-13.608 68 130.942
-13.636 68 130.932
-13.66 68 130.926
-13.684 68 130.92
-13.71 68 130.914
-13.734 68 130.908
-13.758 68 130.898
-13.784 68 130.888
-13.81 68 130.876
-13.834 68 130.862
-13.858 68 130.856
-13.882 68 130.84
-13.908 68 130.82
-13.934 68 130.806
-13.958 68 130.794
-13.984 68 130.786
-14.006 68 130.78
-14.034 68 130.766
-14.058 68 130.756
-14.082 68 130.752
-14.106 68 130.744
-14.13 68 130.722
-14.156 68 130.71
-14.182 68 130.704
-14.206 68 130.692
-14.23 68 130.686
-14.256 68 130.686
-14.28 68 130.684
-14.306 68 130.676
-14.332 68 130.664
-14.356 68 130.65
-14.38 68 130.642
-14.404 68 130.624
-14.428 68 130.61
-14.454 68 130.6
-14.478 68 130.59
-14.502 68 130.578
-14.528 68 130.564
-14.552 68 130.56
-14.578 68 130.556
-14.604 68 130.552
-14.63 68 130.534
-14.652 68 130.516
-14.678 68 130.5
-14.702 68 130.494
-14.728 68 130.484
-14.75 68 130.472
-14.776 68 130.464
-14.8 68 130.464
-14.826 68 130.454
-14.85 68 130.444
-14.876 68 130.432
-14.9 68 130.428
-14.924 68 130.41
-14.948 68 130.392
-14.974 68 130.382
-14.998 68 130.374
-15.024 68 130.368
-15.048 68 130.352
-15.072 68 130.338
-15.098 68 130.328
-15.124 68 130.32
-15.146 68 130.312
-15.172 68 130.304
-15.196 68 130.294
-15.222 68 130.276
-15.246 68 130.272
-15.27 68 130.268
-15.294 68 130.252
-15.318 68 130.238
-15.344 68 130.228
-15.37 68 130.22
-15.394 68 130.214
-15.42 68 130.202
-15.442 68 130.184
-15.466 68 130.17
-15.494 68 130.168
-15.52 68 130.162
-15.542 68 130.154
-15.566 68 130.134
-15.59 68 130.12
-15.618 68 130.112
-15.642 68 130.108
-15.666 68 130.102
-15.69 68 130.094
-15.714 68 130.084
-15.738 68 130.066
-15.766 68 130.05
-15.788 68 130.04
-15.814 68 130.036
-15.838 68 130.034
-15.864 68 130.026
-15.888 68 130.012
-15.912 68 129.99
-15.936 68 129.982
-15.964 68 129.982
-15.988 68 129.982
-16.012 68 129.976
-16.034 68 129.952
-16.062 68 129.932
-16.084 68 129.93
-16.11 68 129.928
-16.134 68 129.922
-16.158 68 129.9
-16.184 68 129.886
-16.208 68 129.87
-16.232 68 129.858
-16.256 68 129.848
-16.28 68 129.844
-16.31 68 129.838
-16.332 68 129.838
-16.356 68 129.83
-16.38 68 129.816
-16.404 68 129.806
-16.428 68 129.792
-16.456 68 129.772
-16.478 68 129.756
-16.502 68 129.74
-16.526 68 129.732
-16.552 68 129.73
-16.578 68 129.73
-16.602 68 129.714
-16.626 68 129.702
-16.65 68 129.696
-16.674 68 129.688
-16.7 68 129.676
-16.726 68 129.672
-16.75 68 129.66
-16.774 68 129.65
-16.798 68 129.634
-16.822 68 129.618
-16.848 68 129.608
-16.872 68 129.606
-16.896 68 129.598
-16.92 68 129.588
-16.944 68 129.576
-16.97 68 129.564
-16.994 68 129.564
-17.018 68 129.552
-17.042 68 129.534
-17.066 68 129.522
-17.09 68 129.518
-17.118 68 129.51
-17.144 68 129.504
-17.166 68 129.498
-17.19 68 129.49
-17.214 68 129.484
-17.238 68 129.466
-17.264 68 129.45
-17.29 68 129.436
-17.312 68 129.426
-17.336 68 129.41
-17.36 68 129.398
-17.386 68 129.388
-17.41 68 129.38
-17.434 68 129.378
-17.458 68 129.368
-17.482 68 129.354
-17.506 68 129.348
-17.534 68 129.336
-17.556 68 129.33
-17.58 68 129.312
-17.604 68 129.296
-17.63 68 129.29
-17.654 68 129.286
-17.68 68 129.276
-17.702 68 129.264
-17.728 68 129.252
-17.75 68 129.234
-17.774 68 129.216
-17.798 68 129.212
-17.824 68 129.206
-17.848 68 129.2
-17.872 68 129.184
-17.898 68 129.176
-17.922 68 129.17
-17.946 68 129.164
-17.972 68 129.156
-17.994 68 129.14
-18.02 68 129.124
-18.044 68 129.116
-18.068 68 129.108
-18.092 68 129.096
-18.116 68 129.084
-18.14 68 129.074
-18.164 68 129.056
-18.188 68 129.046
-18.214 68 129.038
-18.238 68 129.032
-18.262 68 129.03
-18.288 68 129.03
-18.314 68 129.026
-18.336 68 129.006
-18.36 68 128.98
-18.384 68 128.974
-18.408 68 128.97
-18.434 68 128.96
-18.46 68 128.948
-18.482 68 128.942
-18.508 68 128.936
-18.532 68 128.934
-18.556 68 128.922
-18.578 68 128.908
-18.606 68 128.89
-18.628 68 128.876
-18.652 68 128.862
-18.676 68 128.856
-18.702 68 128.85
-18.726 68 128.84
-18.75 68 128.824
-18.772 68 128.806
-18.8 68 128.796
-18.822 68 128.794
-18.85 68 128.794
-18.872 68 128.78
-18.894 68 128.766
-18.918 68 128.752
-18.944 68 128.74
-18.968 68 128.73
-18.994 68 128.73
-19.018 68 128.722
-19.042 68 128.706
-19.064 68 128.702
-19.088 68 128.694
-19.114 68 128.682
-19.138 68 128.666
-19.162 68 128.65
-19.186 68 128.64
-19.21 68 128.64
-19.236 68 128.638
-19.26 68 128.634
-19.286 68 128.63
-19.31 68 128.618
-19.332 68 128.602
-19.356 68 128.586
-19.382 68 128.562
-19.404 68 128.556
-19.43 68 128.544
-19.452 68 128.532
-19.48 68 128.52
-19.502 68 128.52
-19.526 68 128.512
-19.55 68 128.496
-19.574 68 128.48
-19.598 68 128.48
-19.624 68 128.478
-19.646 68 128.472
-19.674 68 128.454
-19.694 68 128.442
-19.72 68 128.432
-19.744 68 128.428
-19.768 68 128.408
-19.792 68 128.392
-19.818 68 128.392
-19.84 68 128.384
-19.864 68 128.37
-19.888 68 128.364
-19.914 68 128.354
-19.938 68 128.346
-19.96 68 128.336
-19.984 68 128.322
-20.008 68 128.31
-20.032 68 128.302
-20.058 68 128.294
-20.082 68 128.282
-20.106 68 128.272
-20.128 68 128.26
-20.152 68 128.25
-20.178 68 128.244
-20.202 68 128.24
-20.226 68 128.232
-20.25 68 128.22
-20.274 68 128.206
-20.3 68 128.186
-20.322 68 128.174
-20.346 68 128.16
-20.368 68 128.148
-20.392 68 128.126
-20.416 68 128.114
-20.442 68 128.112
-20.466 68 128.112
-20.49 68 128.112
-20.516 68 128.116
-20.54 68 128.116
-20.562 68 128.096
-20.586 68 128.07
-20.61 68 128.056
-20.636 68 128.05
-20.658 68 128.048
-20.682 68 128.044
-20.708 68 128.024
-20.732 68 128.01
-20.754 68 128.006
-20.78 68 127.988
-20.802 68 127.968
-20.828 68 127.96
-20.85 68 127.958
-20.874 68 127.948
-20.898 68 127.94
-20.922 68 127.932
-20.946 68 127.924
-20.974 68 127.914
-20.994 68 127.904
-21.02 68 127.894
-21.042 68 127.884
-21.068 68 127.872
-21.09 68 127.868
-21.116 68 127.86
-21.14 68 127.854
-21.164 68 127.836
-21.186 68 127.82
-21.21 68 127.816
-21.236 68 127.814
-21.262 68 127.804
-21.284 68 127.79
-21.308 68 127.78
-21.332 68 127.772
-21.356 68 127.76
-21.38 68 127.748
-21.404 68 127.734
-21.428 68 127.726
-21.452 68 127.712
-21.474 68 127.702
-21.502 68 127.692
-21.524 68 127.68
-21.546 68 127.662
-21.568 68 127.644
-21.592 68 127.642
-21.618 68 127.642
-21.644 68 127.632
-21.668 68 127.626
-21.694 68 127.626
-21.718 68 127.622
-21.74 68 127.616
-21.762 68 127.596
-21.788 68 127.576
-21.81 68 127.556
-21.834 68 127.546
-21.856 68 127.534
-21.882 68 127.52
-21.904 68 127.51
-21.93 68 127.494
-21.952 68 127.488
-21.976 68 127.48
-22 68 127.478
-22.028 68 127.468
-22.05 68 127.458
-22.074 68 127.446
-22.098 68 127.444
-22.122 68 127.442
-22.146 68 127.434
-22.17 68 127.422
-22.194 68 127.41
-22.218 68 127.4
-22.24 68 127.388
-22.262 68 127.368
-22.288 68 127.352
-22.312 68 127.34
-22.334 68 127.332
-22.358 68 127.324
-22.382 68 127.316
-22.408 68 127.308
-22.432 68 127.302
-22.458 68 127.298
-22.48 68 127.29
-22.504 68 127.28
-22.528 68 127.274
-22.55 68 127.262
-22.576 68 127.248
-22.598 68 127.236
-22.622 68 127.222
-22.646 68 127.214
-22.67 68 127.206
-22.694 68 127.198
-22.718 68 127.19
-22.744 68 127.188
-22.766 68 127.176
-22.79 68 127.158
-22.812 68 127.156
-22.84 68 127.144
-22.86 68 127.126
-22.882 68 127.102
-22.906 68 127.084
-22.93 68 127.082
-22.956 68 127.082
-22.982 68 127.082
-23.004 68 127.08
-23.028 68 127.066
-23.052 68 127.058
-23.076 68 127.048
-23.098 68 127.04
-23.124 68 127.022
-23.146 68 127.012
-23.172 68 127.002
-23.194 68 126.998
-23.218 68 126.984
-23.242 68 126.968
-23.264 68 126.958
-23.288 68 126.95
-23.314 68 126.938
-23.336 68 126.936
-23.36 68 126.932
-23.386 68 126.926
-23.41 68 126.914
-23.432 68 126.896
-23.454 68 126.872
-23.478 68 126.864
-23.502 68 126.862
-23.526 68 126.854
-23.55 68 126.848
-23.574 68 126.836
-23.596 68 126.824
-23.62 68 126.818
-23.646 68 126.802
-23.668 68 126.788
-23.69 68 126.776
-23.714 68 126.766
-23.74 68 126.762
-23.764 68 126.758
-23.788 68 126.746
-23.81 68 126.734
-23.836 68 126.722
-23.856 68 126.714
-23.88 68 126.708
-23.906 68 126.704
-23.932 68 126.69
-23.952 68 126.68
-23.976 68 126.67
-24 68 126.662
-24.026 68 126.658
-24.048 68 126.644
-24.07 68 126.624
-24.094 68 126.614
-24.12 68 126.612
-24.142 68 126.61
-24.166 68 126.6
-24.192 68 126.592
-24.216 68 126.586
-24.24 68 126.586
-24.264 68 126.574
-24.286 68 126.558
-24.31 68 126.546
-24.334 68 126.532
-24.358 68 126.52
-24.38 68 126.512
-24.404 68 126.502
-24.428 68 126.498
-24.452 68 126.486
-24.474 68 126.47
-24.498 68 126.448
-24.52 68 126.444
-24.544 68 126.444
-24.57 68 126.444
-24.594 68 126.428
-24.616 68 126.404
-24.64 68 126.398
-24.664 68 126.398
-24.69 68 126.392
-24.712 68 126.388
-24.734 68 126.378
-24.76 68 126.364
-24.784 68 126.348
-24.804 68 126.328
-24.828 68 126.312
-24.852 68 126.308
-24.876 68 126.306
-24.9 68 126.3
-24.924 68 126.28
-24.944 68 126.27
-24.972 68 126.256
-24.992 68 126.24
-25.016 68 126.228
-25.04 68 126.226
-25.064 68 126.222
-25.086 68 126.212
-25.112 68 126.21
-25.138 68 126.208
-25.162 68 126.208
-25.184 68 126.192
-25.206 68 126.176
-25.23 68 126.172
-25.254 68 126.164
-25.278 68 126.15
-25.3 68 126.138
-25.324 68 126.13
-25.348 68 126.122
-25.37 68 126.108
-25.396 68 126.096
-25.42 68 126.092
-25.444 68 126.084
-25.464 68 126.07
-25.488 68 126.044
-25.51 68 126.026
-25.534 68 126.018
-25.556 68 126.01
-25.58 68 125.994
-25.604 68 125.988
-25.628 68 125.986
-25.652 68 125.986
-25.678 68 125.972
-25.7 68 125.97
-25.724 68 125.966
-25.748 68 125.962
-25.77 68 125.946
-25.794 68 125.932
-25.82 68 125.924
-25.84 68 125.912
-25.862 68 125.896
-25.886 68 125.884
-25.91 68 125.872
-25.932 68 125.862
-25.956 68 125.858
-25.98 68 125.852
-26.004 68 125.836
-26.028 68 125.824
-26.052 68 125.816
-26.074 68 125.806
-26.098 68 125.792
-26.12 68 125.784
-26.144 68 125.776
-26.168 68 125.772
-26.192 68 125.762
-26.214 68 125.75
-26.238 68 125.74
-26.262 68 125.736
-26.286 68 125.732
-26.31 68 125.73
-26.332 68 125.722
-26.358 68 125.708
-26.38 68 125.692
-26.402 68 125.68
-26.426 68 125.662
-26.448 68 125.652
-26.47 68 125.636
-26.494 68 125.628
-26.52 68 125.624
-26.542 68 125.624
-26.568 68 125.62
-26.59 68 125.614
-26.616 68 125.598
-26.636 68 125.58
-26.658 68 125.566
-26.682 68 125.56
-26.706 68 125.552
-26.73 68 125.55
-26.754 68 125.536
-26.776 68 125.522
-26.796 68 125.502
-26.822 68 125.492
-26.848 68 125.488
-26.87 68 125.488
-26.894 68 125.47
-26.916 68 125.464
-26.94 68 125.46
-26.964 68 125.456
-26.986 68 125.444
-27.008 68 125.424
-27.032 68 125.412
24.772 69 132.57
24.744 69 132.568
24.716 69 132.56
24.69 69 132.552
24.662 69 132.55
24.636 69 132.55
24.616 69 132.574
24.588 69 132.574
24.56 69 132.568
24.534 69 132.568
24.512 69 132.584
24.484 69 132.59
24.46 69 132.59
24.43 69 132.584
24.408 69 132.584
24.384 69 132.598
24.356 69 132.598
24.326 69 132.59
24.302 69 132.59
24.278 69 132.598
24.252 69 132.602
24.226 69 132.602
24.198 69 132.588
24.168 69 132.588
24.146 69 132.592
24.122 69 132.606
24.098 69 132.622
24.07 69 132.624
24.046 69 132.624
24.016 69 132.626
23.994 69 132.628
23.964 69 132.628
23.942 69 132.628
23.912 69 132.632
23.892 69 132.636
23.866 69 132.65
23.842 69 132.65
23.814 69 132.646
23.784 69 132.642
23.76 69 132.642
23.738 69 132.656
23.708 69 132.656
23.684 69 132.654
23.658 69 132.654
23.632 69 132.654
23.606 69 132.652
23.578 69 132.65
23.548 69 132.644
23.524 69 132.644
23.496 69 132.644
23.474 69 132.654
23.45 69 132.662
23.422 69 132.662
23.396 69 132.666
23.372 69 132.672
23.348 69 132.69
23.326 69 132.708
23.302 69 132.714
23.276 69 132.714
23.246 69 132.708
23.222 69 132.708
23.192 69 132.702
23.166 69 132.698
23.136 69 132.698
23.114 69 132.702
23.088 69 132.71
23.066 69 132.714
23.036 69 132.714
23.012 69 132.712
22.984 69 132.712
22.962 69 132.724
22.932 69 132.724
22.908 69 132.718
22.882 69 132.718
22.854 69 132.718
22.828 69 132.72
22.804 69 132.734
22.782 69 132.748
22.754 69 132.748
22.722 69 132.73
22.698 69 132.73
22.672 69 132.738
22.648 69 132.742
22.62 69 132.746
22.598 69 132.752
22.572 69 132.754
22.546 69 132.754
22.518 69 132.754
22.494 69 132.762
22.466 69 132.77
22.446 69 132.772
22.414 69 132.772
22.39 69 132.768
22.362 69 132.764
22.336 69 132.764
22.31 69 132.774
22.292 69 132.8
22.264 69 132.806
22.24 69 132.81
22.214 69 132.818
22.19 69 132.824
22.164 69 132.824
22.136 69 132.818
22.106 69 132.806
22.078 69 132.788
22.05 69 132.788
22.028 69 132.806
22.004 69 132.806
21.976 69 132.802
21.946 69 132.802
21.926 69 132.814
21.898 69 132.824
21.876 69 132.84
21.85 69 132.84
21.826 69 132.846
21.798 69 132.846
21.772 69 132.84
21.742 69 132.824
21.716 69 132.824
21.69 69 132.824
21.664 69 132.828
21.64 69 132.846
21.618 69 132.858
21.59 69 132.862
21.566 69 132.868
21.542 69 132.888
21.518 69 132.888
21.492 69 132.888
21.464 69 132.888
21.444 69 132.908
21.418 69 132.916
21.392 69 132.916
21.362 69 132.9
21.33 69 132.868
21.302 69 132.86
21.278 69 132.86
21.25 69 132.86
21.226 69 132.864
21.202 69 132.88
21.178 69 132.894
21.152 69 132.9
21.126 69 132.904
21.1 69 132.908
21.074 69 132.916
21.052 69 132.92
21.022 69 132.92
21 69 132.92
20.968 69 132.908
20.942 69 132.908
20.918 69 132.912
20.894 69 132.92
20.866 69 132.924
20.844 69 132.936
20.818 69 132.936
20.79 69 132.932
20.762 69 132.932
20.74 69 132.942
20.714 69 132.942
20.686 69 132.936
20.658 69 132.936
20.634 69 132.938
20.61 69 132.948
20.584 69 132.954
20.558 69 132.958
20.534 69 132.968
20.506 69 132.972
20.482 69 132.972
20.452 69 132.976
20.43 69 132.978
20.408 69 132.978
20.378 69 132.978
20.348 69 132.97
20.324 69 132.97
20.296 69 132.97
20.272 69 132.976
20.25 69 132.986
20.224 69 132.998
20.198 69 133
20.174 69 133
20.146 69 132.998
20.12 69 132.998
20.094 69 133.006
20.07 69 133.012
20.046 69 133.028
20.02 69 133.028
19.99 69 133.022
19.966 69 133.02
19.936 69 133.016
19.912 69 133.012
19.886 69 133.012
19.862 69 133.024
19.834 69 133.026
19.81 69 133.026
19.78 69 133.026
19.758 69 133.042
19.734 69 133.042
19.706 69 133.042
19.676 69 133.034
19.652 69 133.034
19.628 69 133.042
19.602 69 133.046
19.576 69 133.046
19.55 69 133.052
19.526 69 133.068
19.502 69 133.068
19.474 69 133.068
19.45 69 133.068
19.422 69 133.068
19.396 69 133.06
19.364 69 133.052
19.34 69 133.052
19.318 69 133.06
19.294 69 133.068
19.264 69 133.068
19.24 69 133.068
19.212 69 133.076
19.19 69 133.094
19.162 69 133.1
19.14 69 133.108
19.112 69 133.108
19.088 69 133.108
19.058 69 133.108
19.036 69 133.108
19.008 69 133.098
18.982 69 133.098
18.956 69 133.102
18.93 69 133.11
18.902 69 133.116
18.884 69 133.138
18.856 69 133.142
18.832 69 133.142
18.8 69 133.126
18.776 69 133.126
18.75 69 133.132
18.726 69 133.132
18.696 69 133.132
18.67 69 133.132
18.644 69 133.134
18.624 69 133.158
18.596 69 133.158
18.572 69 133.156
18.544 69 133.156
18.518 69 133.158
18.49 69 133.158
18.466 69 133.15
18.438 69 133.15
18.414 69 133.15
18.384 69 133.148
18.36 69 133.148
18.332 69 133.148
18.31 69 133.162
18.282 69 133.174
18.258 69 133.174
18.23 69 133.164
18.204 69 133.164
18.178 69 133.168
18.154 69 133.176
18.13 69 133.192
18.106 69 133.198
18.08 69 133.198
18.05 69 133.192
18.022 69 133.192
18.002 69 133.204
17.978 69 133.222
17.952 69 133.222
17.924 69 133.206
17.896 69 133.198
17.866 69 133.194
17.842 69 133.192
17.812 69 133.192
17.792 69 133.204
17.77 69 133.232
17.746 69 133.236
17.718 69 133.236
17.69 69 133.224
17.664 69 133.224
17.64 69 133.238
17.614 69 133.238
17.588 69 133.242
17.564 69 133.252
17.538 69 133.252
17.51 69 133.244
17.482 69 133.232
17.456 69 133.228
17.43 69 133.228
17.402 69 133.238
17.38 69 133.25
17.354 69 133.258
17.332 69 133.266
17.304 69 133.266
17.284 69 133.298
17.258 69 133.302
17.232 69 133.302
17.2 69 133.28
17.17 69 133.252
17.138 69 133.228
17.116 69 133.228
17.09 69 133.256
17.072 69 133.278
17.044 69 133.28
17.02 69 133.282
16.996 69 133.3
16.976 69 133.334
16.948 69 133.34
16.924 69 133.34
16.894 69 133.328
16.868 69 133.32
16.836 69 133.298
16.812 69 133.298
16.788 69 133.31
16.762 69 133.32
16.734 69 133.32
16.708 69 133.304
16.678 69 133.298
16.656 69 133.296
16.626 69 133.298
16.604 69 133.308
16.58 69 133.324
16.558 69 133.348
16.532 69 133.354
16.51 69 133.366
16.48 69 133.366
16.456 69 133.366
16.428 69 133.366
16.404 69 133.376
16.38 69 133.38
16.352 69 133.38
16.324 69 133.364
16.298 69 133.364
16.272 69 133.372
16.25 69 133.382
16.222 69 133.39
16.198 69 133.396
16.176 69 133.412
16.15 69 133.412
16.12 69 133.398
16.094 69 133.398
16.066 69 133.396
16.04 69 133.39
16.01 69 133.39
15.988 69 133.39
15.96 69 133.39
15.934 69 133.39
15.908 69 133.392
15.884 69 133.398
15.86 69 133.406
15.836 69 133.406
15.806 69 133.41
16.138 69 135.236
16.02 69 135.236
15.75 69 133.558
15.712 69 133.48
15.68 69 133.428
15.65 69 133.42
15.624 69 133.404
15.594 69 133.404
15.572 69 133.41
15.548 69 133.416
15.522 69 133.42
15.496 69 133.422
15.472 69 133.434
15.446 69 133.442
15.42 69 133.442
15.39 69 133.432
15.366 69 133.432
15.342 69 133.454
15.322 69 133.476
15.294 69 133.494
15.272 69 133.498
15.242 69 133.498
15.218 69 133.486
15.188 69 133.476
15.162 69 133.474
15.134 69 133.474
15.114 69 133.502
15.09 69 133.51
15.062 69 133.51
15.032 69 133.474
15.004 69 133.474
14.98 69 133.484
14.958 69 133.498
14.93 69 133.512
14.908 69 133.512
14.878 69 133.506
14.854 69 133.506
14.826 69 133.506
14.8 69 133.5
14.772 69 133.5
14.75 69 133.52
14.726 69 133.548
14.704 69 133.548
14.676 69 133.544
14.65 69 133.544
14.624 69 133.556
14.6 69 133.566
14.574 69 133.566
14.548 69 133.564
14.52 69 133.556
14.494 69 133.55
14.466 69 133.544
14.44 69 133.544
14.416 69 133.55
14.392 69 133.562
14.366 69 133.576
14.342 69 133.59
14.314 69 133.596
14.29 69 133.596
14.262 69 133.578
14.234 69 133.564
14.206 69 133.564
14.184 69 133.574
14.158 69 133.58
14.132 69 133.58
14.104 69 133.58
14.08 69 133.58
14.052 69 133.578
14.026 69 133.578
14 69 133.578
13.978 69 133.592
13.95 69 133.596
13.924 69 133.592
13.896 69 133.596
13.874 69 133.6
13.846 69 133.606
13.822 69 133.606
13.794 69 133.606
13.77 69 133.602
13.74 69 133.598
13.716 69 133.598
13.692 69 133.62
13.672 69 133.65
13.646 69 133.672
13.624 69 133.672
13.594 69 133.664
13.566 69 133.628
13.536 69 133.628
13.514 69 133.648
13.486 69 133.648
13.466 69 133.676
13.444 69 133.706
13.418 69 133.71
13.392 69 133.71
13.366 69 133.7
13.336 69 133.698
13.312 69 133.698
13.286 69 133.698
13.26 69 133.694
13.234 69 133.69
13.208 69 133.69
13.18 69 133.702
13.156 69 133.702
13.124 69 133.672
13.096 69 133.64
13.07 69 133.64
13.046 69 133.652
13.024 69 133.696
13.004 69 133.738
12.976 69 133.738
12.95 69 133.738
12.928 69 133.744
12.9 69 133.744
12.872 69 133.722
12.844 69 133.702
12.818 69 133.702
12.792 69 133.702
12.766 69 133.71
12.742 69 133.728
12.716 69 133.73
12.694 69 133.758
12.668 69 133.764
12.642 69 133.764
12.61 69 133.746
12.586 69 133.73
12.556 69 133.728
12.532 69 133.722
12.504 69 133.722
12.482 69 133.74
12.456 69 133.74
12.428 69 133.734
12.402 69 133.734
12.376 69 133.738
12.354 69 133.754
12.328 69 133.762
12.302 69 133.77
12.278 69 133.776
12.252 69 133.782
12.228 69 133.794
12.202 69 133.806
12.184 69 133.86
12.158 69 133.86
12.132 69 133.86
12.102 69 133.85
12.078 69 133.85
12.048 69 133.834
12.024 69 133.826
11.996 69 133.822
11.97 69 133.826
11.946 69 133.858
12.024 69 133.858
11.894 69 133.844
11.868 69 133.844
11.844 69 133.84
11.812 69 133.82
11.784 69 133.82
11.764 69 133.838
11.738 69 133.854
11.712 69 133.854
11.684 69 133.848
11.66 69 133.848
11.634 69 133.868
11.614 69 133.898
11.586 69 133.898
11.556 69 133.898
11.534 69 133.908
11.512 69 133.912
11.482 69 133.912
11.454 69 133.88
11.424 69 133.858
11.4 69 133.854
11.372 69 133.854
11.348 69 133.858
11.32 69 133.862
11.298 69 133.886
11.27 69 133.886
11.246 69 133.886
11.22 69 133.888
11.198 69 133.892
11.168 69 133.892
11.142 69 133.886
11.116 69 133.886
11.092 69 133.894
11.064 69 133.894
11.04 69 133.894
11.012 69 133.9
10.99 69 133.916
10.964 69 133.92
10.938 69 133.924
10.912 69 133.924
10.886 69 133.924
10.862 69 133.928
10.836 69 133.936
10.808 69 133.938
10.784 69 133.938
10.756 69 133.94
10.732 69 133.95
10.71 69 133.962
10.684 69 133.962
10.652 69 133.95
10.628 69 133.94
10.6 69 133.94
10.576 69 133.946
10.548 69 133.956
10.528 69 133.964
10.502 69 133.972
10.476 69 133.974
10.448 69 133.976
10.424 69 133.978
10.396 69 133.986
10.374 69 133.99
10.344 69 133.99
10.32 69 133.988
10.294 69 133.98
10.268 69 133.98
10.24 69 133.984
10.216 69 133.99
10.188 69 133.99
10.166 69 133.992
10.136 69 133.992
10.114 69 133.996
10.086 69 134.004
10.062 69 134.01
10.036 69 134.01
10.01 69 134.006
9.982 69 134.006
9.958 69 134.01
9.932 69 134.018
9.906 69 134.02
9.88 69 134.022
9.858 69 134.034
9.83 69 134.04
9.806 69 134.04
9.778 69 134.044
9.754 69 134.044
9.728 69 134.056
9.704 69 134.076
9.678 69 134.078
9.652 69 134.078
9.624 69 134.072
9.6 69 134.068
9.572 69 134.066
9.546 69 134.06
9.518 69 134.044
9.494 69 134.044
9.466 69 134.054
9.442 69 134.064
9.416 69 134.074
9.392 69 134.074
9.364 69 134.08
9.34 69 134.078
9.312 69 134.078
9.288 69 134.078
9.262 69 134.074
9.234 69 134.07
9.206 69 134.068
9.182 69 134.068
9.158 69 134.082
9.132 69 134.088
9.104 69 134.088
9.08 69 134.088
9.054 69 134.088
9.028 69 134.09
9 69 134.092
8.978 69 134.104
8.95 69 134.104
8.928 69 134.108
8.902 69 134.122
8.876 69 134.126
8.848 69 134.128
8.824 69 134.128
8.796 69 134.132
8.772 69 134.134
8.744 69 134.136
8.72 69 134.136
8.692 69 134.136
8.668 69 134.136
8.64 69 134.138
8.616 69 134.146
8.588 69 134.148
8.566 69 134.152
8.54 69 134.162
8.516 69 134.17
8.488 69 134.172
8.464 69 134.172
8.438 69 134.172
8.412 69 134.172
8.386 69 134.168
8.358 69 134.166
8.33 69 134.166
8.306 69 134.166
8.282 69 134.172
8.256 69 134.18
8.23 69 134.18
8.206 69 134.188
8.18 69 134.198
8.154 69 134.198
8.126 69 134.196
8.102 69 134.196
8.076 69 134.206
8.05 69 134.208
8.024 69 134.21
7.998 69 134.212
7.972 69 134.22
7.948 69 134.224
7.92 69 134.228
7.898 69 134.234
7.872 69 134.242
7.846 69 134.248
7.82 69 134.248
7.794 69 134.242
7.766 69 134.238
7.742 69 134.234
7.712 69 134.238
7.69 69 134.238
7.662 69 134.244
7.64 69 134.26
7.612 69 134.262
7.588 69 134.264
7.56 69 134.264
7.536 69 134.264
7.508 69 134.266
7.484 69 134.266
7.458 69 134.266
7.432 69 134.266
7.404 69 134.276
7.38 69 134.276
7.354 69 134.276
7.328 69 134.276
7.3 69 134.278
7.276 69 134.288
7.254 69 134.3
7.228 69 134.306
7.2 69 134.306
7.176 69 134.31
7.148 69 134.314
7.124 69 134.318
7.096 69 134.318
7.072 69 134.316
7.046 69 134.31
7.02 69 134.31
6.994 69 134.31
6.968 69 134.312
6.942 69 134.312
6.918 69 134.332
6.892 69 134.332
6.864 69 134.332
6.836 69 134.332
6.814 69 134.362
6.792 69 134.362
6.762 69 134.36
6.734 69 134.358
6.71 69 134.354
6.684 69 134.35
6.658 69 134.35
6.632 69 134.352
6.606 69 134.358
6.582 69 134.37
6.558 69 134.37
6.526 69 134.368
6.502 69 134.364
6.476 69 134.36
6.45 69 134.356
6.422 69 134.356
6.398 69 134.356
6.37 69 134.348
6.346 69 134.338
6.32 69 134.338
6.294 69 134.346
6.266 69 134.354
6.242 69 134.354
6.214 69 134.358
6.192 69 134.376
6.168 69 134.382
6.142 69 134.39
6.114 69 134.396
6.09 69 134.41
6.066 69 134.41
6.038 69 134.41
6.012 69 134.41
5.988 69 134.422
5.96 69 134.424
5.936 69 134.424
5.908 69 134.426
5.884 69 134.426
5.856 69 134.436
5.834 69 134.452
5.808 69 134.458
5.784 69 134.462
5.756 69 134.464
5.732 69 134.47
5.706 69 134.472
5.68 69 134.472
5.652 69 134.466
5.628 69 134.466
5.6 69 134.466
5.576 69 134.476
5.548 69 134.476
5.524 69 134.47
5.498 69 134.47
5.472 69 134.476
5.444 69 134.498
5.424 69 134.504
5.392 69 134.504
5.368 69 134.5
5.342 69 134.496
5.316 69 134.492
5.288 69 134.486
5.264 69 134.486
5.236 69 134.492
5.212 69 134.498
5.186 69 134.498
5.16 69 134.492
5.132 69 134.492
5.108 69 134.5
5.082 69 134.502
5.06 69 134.512
5.032 69 134.516
5.008 69 134.524
4.98 69 134.524
4.956 69 134.522
4.928 69 134.512
4.9 69 134.5
4.872 69 134.5
4.85 69 134.508
4.822 69 134.508
4.798 69 134.504
4.768 69 134.5
4.744 69 134.496
4.716 69 134.486
4.692 69 134.484
4.666 69 134.474
4.64 69 134.466
4.608 69 134.45
4.584 69 134.446
4.556 69 134.43
4.532 69 134.424
4.504 69 134.412
4.478 69 134.404
4.448 69 134.378
4.424 69 134.364
4.396 69 134.356
4.372 69 134.352
4.34 69 134.336
4.316 69 134.324
4.288 69 134.316
4.264 69 134.306
4.232 69 134.286
4.208 69 134.278
4.18 69 134.264
4.156 69 134.246
4.128 69 134.228
4.1 69 134.212
4.074 69 134.198
4.046 69 134.182
4.016 69 134.158
3.992 69 134.13
3.96 69 134.106
3.936 69 134.088
3.906 69 134.058
3.88 69 134.028
3.85 69 134.014
3.826 69 134.01
3.798 69 134.004
3.774 69 134
3.746 69 133.988
3.72 69 133.976
3.692 69 133.95
3.666 69 133.928
3.64 69 133.924
3.614 69 133.916
3.584 69 133.902
3.558 69 133.896
3.53 69 133.894
3.508 69 133.894
3.478 69 133.888
3.456 69 133.884
3.426 69 133.872
3.402 69 133.858
3.374 69 133.85
3.348 69 133.842
3.322 69 133.828
3.296 69 133.82
3.268 69 133.82
3.244 69 133.814
3.218 69 133.806
3.19 69 133.798
3.164 69 133.786
3.138 69 133.776
3.11 69 133.762
3.084 69 133.756
3.056 69 133.748
3.032 69 133.746
3.004 69 133.738
2.978 69 133.734
2.95 69 133.718
2.926 69 133.702
2.898 69 133.682
2.872 69 133.674
2.844 69 133.668
2.82 69 133.668
2.792 69 133.65
2.766 69 133.632
2.736 69 133.63
2.714 69 133.628
2.686 69 133.628
2.662 69 133.606
2.63 69 133.576
2.606 69 133.57
2.58 69 133.57
2.554 69 133.57
2.528 69 133.564
2.502 69 133.56
2.474 69 133.556
2.452 69 133.554
2.422 69 133.54
2.398 69 133.528
2.368 69 133.514
2.344 69 133.508
2.318 69 133.496
2.292 69 133.488
2.266 69 133.478
2.238 69 133.472
2.21 69 133.47
2.188 69 133.466
2.16 69 133.466
2.136 69 133.46
2.11 69 133.452
2.084 69 133.444
2.058 69 133.438
2.032 69 133.43
2.004 69 133.422
1.978 69 133.414
1.952 69 133.408
1.926 69 133.408
1.9 69 133.408
1.874 69 133.402
1.848 69 133.39
1.822 69 133.386
1.794 69 133.376
1.768 69 133.36
1.74 69 133.352
1.716 69 133.352
1.688 69 133.358
1.666 69 133.358
1.638 69 133.36
1.614 69 133.362
1.586 69 133.362
1.562 69 133.362
1.534 69 133.36
1.51 69 133.35
1.482 69 133.35
1.458 69 133.35
1.434 69 133.35
1.408 69 133.336
1.382 69 133.332
1.356 69 133.328
1.328 69 133.31
1.302 69 133.3
1.274 69 133.29
1.25 69 133.288
1.224 69 133.28
1.198 69 133.274
1.17 69 133.274
1.146 69 133.288
1.12 69 133.288
1.094 69 133.274
1.07 69 133.266
1.04 69 133.25
1.014 69 133.236
0.988 69 133.218
0.958 69 133.202
0.936 69 133.194
0.906 69 133.178
0.884 69 133.162
0.856 69 133.16
0.832 69 133.16
0.806 69 133.162
0.78 69 133.162
0.75 69 133.15
0.726 69 133.126
0.698 69 133.098
0.672 69 133.096
0.646 69 133.096
0.624 69 133.128
0.596 69 133.136
0.572 69 133.144
0.546 69 133.152
0.522 69 133.152
0.496 69 133.152
0.47 69 133.142
0.442 69 133.12
0.418 69 133.108
0.39 69 133.102
0.364 69 133.098
0.338 69 133.092
0.312 69 133.092
0.286 69 133.1
0.264 69 133.108
0.238 69 133.118
0.212 69 133.124
0.184 69 133.124
0.158 69 133.104
0.132 69 133.088
0.106 69 133.088
0.08 69 133.1
0.056 69 133.102
0.028 69 133.102
0.004 69 133.096
-0.024 69 133.094
-0.046 69 133.092
-0.074 69 133.086
-0.098 69 133.074
-0.126 69 133.074
-0.15 69 133.078
-0.178 69 133.082
-0.202 69 133.082
-0.228 69 133.082
-0.252 69 133.074
-0.28 69 133.074
-0.304 69 133.068
-0.334 69 133.05
-0.358 69 133.042
-0.384 69 133.014
-0.412 69 132.984
-0.44 69 132.962
-0.466 69 132.944
-0.49 69 132.936
-0.516 69 132.916
-0.542 69 132.912
-0.568 69 132.912
-0.596 69 132.93
-0.62 69 132.93
-0.646 69 132.912
-0.67 69 132.912
-0.696 69 132.918
-0.72 69 132.952
-0.748 69 132.976
-0.77 69 132.976
-0.798 69 132.964
-0.822 69 132.964
-0.85 69 132.964
-0.876 69 132.95
-0.902 69 132.95
-0.926 69 132.95
-0.952 69 132.93
-0.978 69 132.93
-1 69 132.96
-1.028 69 132.96
-1.056 69 132.93
-1.08 69 132.93
-1.106 69 132.93
-1.132 69 132.93
-1.16 69 132.93
-1.184 69 132.946
-1.208 69 132.974
-1.232 69 132.998
-1.258 69 133.022
-1.282 69 133.022
-1.312 69 132.982
-1.334 69 132.982
-1.36 69 132.994
-1.386 69 132.994
-1.414 69 132.988
-1.438 69 132.988
-1.464 69 132.994
-1.488 69 132.994
-1.514 69 133.004
-1.54 69 133.004
-1.568 69 132.99
-1.592 69 132.99
-1.618 69 132.99
-1.642 69 133.004
-1.668 69 133.028
-1.692 69 133.038
-1.718 69 133.038
-1.744 69 133.014
-1.77 69 133.014
-1.796 69 133.018
-1.82 69 133.038
-1.846 69 133.038
-1.874 69 133.038
-1.896 69 133.03
-1.926 69 133.016
-1.95 69 132.976
-1.98 69 132.974
-2.002 69 132.974
-2.028 69 132.988
-2.052 69 132.992
-2.036 69 134.224
-2.06 69 134.224
-2.13 69 132.994
-2.156 69 132.994
-2.18 69 133.006
-2.206 69 133.032
-2.23 69 133.032
-2.258 69 133.026
-2.286 69 133.026
-2.308 69 133.036
-2.332 69 133.044
-2.358 69 133.044
-2.388 69 133.03
-2.412 69 133.03
-2.44 69 133.034
-2.462 69 133.04
-2.486 69 133.052
-2.512 69 133.076
-2.538 69 133.084
-2.564 69 133.084
-2.59 69 133.082
-2.614 69 133.062
-2.642 69 133.062
-2.666 69 133.072
-2.694 69 133.092
-2.718 69 133.092
-2.746 69 133.066
-2.768 69 133.066
-2.796 69 133.072
-2.82 69 133.09
-2.846 69 133.11
-2.87 69 133.148
-2.898 69 133.148
-2.922 69 133.142
-2.946 69 133.124
-2.972 69 133.124
-3 69 133.142
-3.024 69 133.152
-3.05 69 133.152
-3.074 69 133.168
-3.1 69 133.168
-3.124 69 133.168
-3.152 69 133.192
-3.176 69 133.22
-3.202 69 133.22
-3.226 69 133.226
-3.252 69 133.244
-3.276 69 133.244
-3.302 69 133.226
-3.33 69 133.226
-3.354 69 133.224
-3.382 69 133.224
-3.406 69 133.192
-3.434 69 133.164
-3.462 69 133.164
-3.484 69 133.2
-3.508 69 133.256
-3.534 69 133.274
-3.562 69 133.284
-3.56 69 134.252
-3.432 69 134.302
-3.61 69 134.922
-3.62 69 134.302
-3.69 69 133.164
-3.718 69 133.164
-3.742 69 133.174
-3.766 69 133.19
-3.792 69 133.222
-3.818 69 133.276
-3.84 69 133.346
-3.864 69 133.376
-3.89 69 133.378
-3.916 69 133.378
-3.94 69 133.45
-3.966 69 133.506
-3.988 69 133.506
-4.022 69 133.318
-4.048 69 133.288
-4.072 69 133.288
-4.098 69 133.29
-4.126 69 133.294
-4.148 69 133.298
-4.176 69 133.3
-4.2 69 133.316
-4.226 69 133.334
-4.25 69 133.36
-4.276 69 133.36
-4.3 69 133.364
-4.326 69 133.37
-4.352 69 133.384
-4.38 69 133.392
-4.404 69 133.414
-4.43 69 133.436
-4.454 69 133.452
-4.48 69 133.458
-4.506 69 133.468
-4.53 69 133.486
-4.556 69 133.498
-4.582 69 133.504
-4.606 69 133.504
-4.634 69 133.504
-4.658 69 133.516
-4.684 69 133.534
-4.708 69 133.552
-4.734 69 133.552
-4.76 69 133.562
-4.786 69 133.578
-4.812 69 133.586
-4.84 69 133.594
-4.862 69 133.61
-4.89 69 133.62
-4.912 69 133.626
-4.94 69 133.63
-4.964 69 133.636
-4.99 69 133.642
-5.016 69 133.646
-5.042 69 133.658
-5.066 69 133.67
-5.094 69 133.678
-5.118 69 133.692
-5.146 69 133.706
-5.168 69 133.722
-5.194 69 133.732
-5.22 69 133.74
-5.246 69 133.762
-5.27 69 133.792
-5.296 69 133.814
-5.32 69 133.836
-5.348 69 133.848
-5.372 69 133.852
-5.398 69 133.866
-5.424 69 133.878
-5.452 69 133.886
-5.474 69 133.898
-5.5 69 133.91
-5.526 69 133.912
-5.554 69 133.924
-5.578 69 133.94
-5.606 69 133.948
-5.628 69 133.956
-5.656 69 133.964
-5.68 69 133.964
-5.706 69 133.964
-5.73 69 133.966
-5.758 69 133.972
-5.782 69 133.972
-5.808 69 133.97
-5.834 69 133.97
-5.86 69 133.978
-5.886 69 133.994
-5.914 69 134.014
-5.936 69 134.024
-5.964 69 134.034
-5.988 69 134.058
-6.014 69 134.082
-6.038 69 134.082
-6.066 69 134.058
-6.092 69 134.034
-6.118 69 134.032
-6.142 69 134.03
-6.172 69 134.02
-6.194 69 134.016
-6.222 69 134.014
-6.248 69 134.01
-6.272 69 133.988
-6.3 69 133.954
-6.328 69 133.954
-6.35 69 133.91
-6.38 69 133.896
-6.402 69 133.88
-6.43 69 133.872
-6.456 69 133.846
-6.48 69 133.82
-6.506 69 133.818
-6.532 69 133.818
-6.558 69 133.83
-6.584 69 133.848
-6.61 69 133.848
-6.636 69 133.848
-6.66 69 133.868
-6.686 69 133.868
-6.712 69 133.842
-6.74 69 133.814
-6.764 69 133.794
-6.792 69 133.764
-6.814 69 133.752
-6.844 69 133.732
-6.868 69 133.724
-6.894 69 133.722
-6.918 69 133.716
-6.946 69 133.708
-6.97 69 133.7
-6.996 69 133.684
-7.022 69 133.668
-7.05 69 133.662
-7.074 69 133.66
-7.098 69 133.652
-7.124 69 133.638
-7.152 69 133.63
-7.178 69 133.626
-7.202 69 133.612
-7.228 69 133.594
-7.252 69 133.584
-7.278 69 133.582
-7.308 69 133.57
-7.332 69 133.556
-7.356 69 133.536
-7.384 69 133.518
-7.41 69 133.5
-7.434 69 133.494
-7.462 69 133.49
-7.484 69 133.48
-7.514 69 133.468
-7.538 69 133.458
-7.564 69 133.446
-7.588 69 133.438
-7.616 69 133.424
-7.638 69 133.416
-7.668 69 133.402
-7.692 69 133.396
-7.716 69 133.384
-7.742 69 133.368
-7.77 69 133.35
-7.794 69 133.348
-7.822 69 133.348
-7.846 69 133.348
-7.872 69 133.348
-7.896 69 133.328
-7.924 69 133.3
-7.948 69 133.278
-7.972 69 133.264
-7.998 69 133.254
-8.026 69 133.254
-8.048 69 133.25
-8.078 69 133.236
-8.102 69 133.226
-8.128 69 133.21
-8.152 69 133.202
-8.18 69 133.186
-8.204 69 133.182
-8.23 69 133.18
-8.256 69 133.178
-8.28 69 133.172
-8.306 69 133.154
-8.334 69 133.138
-8.358 69 133.132
-8.384 69 133.126
-8.408 69 133.112
-8.434 69 133.102
-8.458 69 133.088
-8.488 69 133.07
-8.51 69 133.054
-8.538 69 133.044
-8.562 69 133.038
-8.586 69 133.034
-8.614 69 133.026
-8.638 69 133.01
-8.664 69 132.996
-8.69 69 132.976
-8.716 69 132.966
-8.742 69 132.962
-8.766 69 132.954
-8.792 69 132.942
-8.818 69 132.934
-8.844 69 132.928
-8.87 69 132.91
-8.894 69 132.892
-8.92 69 132.882
-8.946 69 132.87
-8.972 69 132.86
-8.998 69 132.854
-9.022 69 132.848
-9.048 69 132.828
-9.072 69 132.824
-9.098 69 132.822
-9.122 69 132.814
-9.152 69 132.8
-9.174 69 132.788
-9.2 69 132.77
-9.224 69 132.756
-9.252 69 132.748
-9.278 69 132.748
-9.304 69 132.748
-9.328 69 132.74
-9.354 69 132.728
-9.378 69 132.712
-9.406 69 132.698
-9.43 69 132.686
-9.456 69 132.674
-9.48 69 132.67
-9.506 69 132.654
-9.532 69 132.638
-9.558 69 132.618
-9.582 69 132.612
-9.608 69 132.604
-9.634 69 132.588
-9.658 69 132.58
-9.684 69 132.58
-9.71 69 132.58
-9.736 69 132.574
-9.76 69 132.56
-9.784 69 132.54
-9.812 69 132.526
-9.836 69 132.514
-9.862 69 132.506
-9.888 69 132.504
-9.914 69 132.49
-9.94 69 132.48
-9.966 69 132.47
-9.99 69 132.466
-10.016 69 132.45
-10.04 69 132.44
-10.066 69 132.43
-10.092 69 132.42
-10.118 69 132.406
-10.142 69 132.396
-10.166 69 132.392
-10.192 69 132.388
-10.218 69 132.38
-10.244 69 132.358
-10.27 69 132.33
-10.292 69 132.326
-10.318 69 132.318
-10.344 69 132.302
-10.37 69 132.278
-10.394 69 132.264
-10.422 69 132.252
-10.446 69 132.252
-10.47 69 132.246
-10.496 69 132.234
-10.52 69 132.224
-10.546 69 132.216
-10.572 69 132.216
-10.596 69 132.212
-10.624 69 132.204
-10.648 69 132.194
-10.674 69 132.18
-10.698 69 132.164
-10.726 69 132.144
-10.748 69 132.134
-10.774 69 132.128
-10.8 69 132.12
-10.824 69 132.106
-10.848 69 132.096
-10.878 69 132.094
-10.902 69 132.09
-10.928 69 132.068
-10.95 69 132.042
-10.976 69 132.032
-11.002 69 132.03
-11.028 69 132.02
-11.052 69 132.01
-11.078 69 132
-11.102 69 131.998
-11.128 69 131.996
-11.154 69 131.984
-11.178 69 131.968
-11.204 69 131.966
-11.23 69 131.964
-11.254 69 131.956
-11.282 69 131.93
-11.304 69 131.914
-11.332 69 131.908
-11.354 69 131.906
-11.38 69 131.898
-11.404 69 131.884
-11.432 69 131.872
-11.456 69 131.866
-11.48 69 131.854
-11.506 69 131.84
-11.53 69 131.83
-11.556 69 131.822
-11.582 69 131.808
-11.606 69 131.794
-11.63 69 131.774
-11.658 69 131.756
-11.682 69 131.752
-11.708 69 131.744
-11.732 69 131.736
-11.758 69 131.728
-11.784 69 131.712
-11.808 69 131.692
-11.832 69 131.682
-11.858 69 131.682
-11.884 69 131.682
-11.908 69 131.662
-11.936 69 131.646
-11.96 69 131.646
-11.986 69 131.628
-12.008 69 131.614
-12.034 69 131.604
-12.06 69 131.598
-12.084 69 131.588
-12.11 69 131.574
-12.134 69 131.568
-12.16 69 131.558
-12.186 69 131.55
-12.21 69 131.542
-12.238 69 131.532
-12.26 69 131.526
-12.286 69 131.506
-12.31 69 131.492
-12.338 69 131.484
-12.362 69 131.484
-12.386 69 131.478
-12.412 69 131.47
-12.436 69 131.454
-12.46 69 131.438
-12.486 69 131.43
-12.512 69 131.418
-12.536 69 131.404
-12.56 69 131.396
-12.586 69 131.386
-12.612 69 131.372
-12.638 69 131.36
-12.662 69 131.36
-12.688 69 131.348
-12.71 69 131.33
-12.736 69 131.312
-12.762 69 131.308
-12.788 69 131.3
-12.812 69 131.292
-12.836 69 131.282
-12.86 69 131.276
-12.888 69 131.266
-12.912 69 131.25
-12.936 69 131.24
-12.96 69 131.23
-12.986 69 131.22
-13.012 69 131.206
-13.036 69 131.198
-13.062 69 131.186
-13.086 69 131.168
-13.11 69 131.166
-13.14 69 131.16
-13.162 69 131.148
-13.188 69 131.128
-13.21 69 131.124
-13.238 69 131.112
-13.262 69 131.094
-13.288 69 131.08
-13.31 69 131.07
-13.336 69 131.06
-13.36 69 131.058
-13.386 69 131.052
-13.412 69 131.04
-13.436 69 131.028
-13.46 69 131.022
-13.488 69 131.022
-13.512 69 131.022
-13.538 69 131.014
-13.562 69 130.994
-13.588 69 130.978
-13.61 69 130.964
-13.636 69 130.952
-13.66 69 130.948
-13.684 69 130.944
-13.71 69 130.928
-13.736 69 130.902
-13.76 69 130.884
-13.784 69 130.87
-13.808 69 130.866
-13.834 69 130.866
-13.86 69 130.864
-13.884 69 130.844
-13.908 69 130.818
-13.934 69 130.812
-13.958 69 130.81
-13.984 69 130.804
-14.008 69 130.794
-14.032 69 130.782
-14.058 69 130.77
-14.084 69 130.758
-14.106 69 130.744
-14.13 69 130.724
-14.156 69 130.716
-14.184 69 130.712
-14.206 69 130.71
-14.232 69 130.702
-14.256 69 130.696
-14.28 69 130.686
-14.304 69 130.67
-14.332 69 130.662
-14.356 69 130.654
-14.382 69 130.646
-14.404 69 130.638
-14.432 69 130.632
-14.454 69 130.62
-14.482 69 130.598
-14.504 69 130.588
-14.53 69 130.574
-14.552 69 130.562
-14.58 69 130.546
-14.602 69 130.538
-14.626 69 130.526
-14.65 69 130.514
-14.678 69 130.51
-14.7 69 130.51
-14.726 69 130.502
-14.752 69 130.494
-14.778 69 130.486
-14.802 69 130.482
-14.826 69 130.47
-14.85 69 130.456
-14.878 69 130.44
-14.9 69 130.44
-14.926 69 130.432
-14.95 69 130.42
-14.974 69 130.404
-14.998 69 130.396
-15.024 69 130.386
-15.048 69 130.362
-15.072 69 130.34
-15.098 69 130.328
-15.124 69 130.32
-15.146 69 130.312
-15.172 69 130.3
-15.196 69 130.294
-15.224 69 130.278
-15.246 69 130.272
-15.27 69 130.266
-15.296 69 130.266
-15.322 69 130.26
-15.344 69 130.248
-15.37 69 130.23
-15.394 69 130.226
-15.42 69 130.22
-15.444 69 130.206
-15.468 69 130.192
-15.492 69 130.188
-15.518 69 130.176
-15.544 69 130.16
-15.568 69 130.15
-15.592 69 130.146
-15.616 69 130.136
-15.64 69 130.116
-15.666 69 130.104
-15.692 69 130.1
-15.718 69 130.098
-15.742 69 130.094
-15.766 69 130.086
-15.788 69 130.064
-15.816 69 130.046
-15.84 69 130.044
-15.864 69 130.042
-15.888 69 130.028
-15.914 69 130.006
-15.938 69 130.004
-15.966 69 129.998
-15.988 69 129.988
-16.014 69 129.976
-16.036 69 129.964
-16.062 69 129.956
-16.086 69 129.954
-16.112 69 129.944
-16.136 69 129.926
-16.162 69 129.916
-16.184 69 129.906
-16.208 69 129.884
-16.232 69 129.874
-16.258 69 129.874
-16.284 69 129.874
-16.31 69 129.868
-16.332 69 129.852
-16.356 69 129.828
-16.38 69 129.814
-16.406 69 129.81
-16.43 69 129.806
-16.456 69 129.794
-16.48 69 129.784
-16.504 69 129.77
-16.528 69 129.752
-16.552 69 129.744
-16.578 69 129.744
-16.602 69 129.738
-16.628 69 129.726
-16.652 69 129.714
-16.676 69 129.704
-16.7 69 129.698
-16.724 69 129.684
-16.75 69 129.67
-16.774 69 129.666
-16.8 69 129.656
-16.822 69 129.638
-16.848 69 129.612
-16.872 69 129.604
-16.896 69 129.604
-16.922 69 129.604
-16.946 69 129.588
-16.968 69 129.574
-16.994 69 129.564
-17.018 69 129.55
-17.042 69 129.534
-17.066 69 129.524
-17.094 69 129.524
-17.116 69 129.52
-17.142 69 129.508
-17.166 69 129.49
-17.192 69 129.482
-17.214 69 129.48
-17.238 69 129.472
-17.264 69 129.456
-17.288 69 129.438
-17.312 69 129.426
-17.336 69 129.42
-17.36 69 129.416
-17.384 69 129.406
-17.41 69 129.384
-17.434 69 129.37
-17.458 69 129.37
-17.484 69 129.37
-17.508 69 129.368
-17.532 69 129.358
-17.558 69 129.346
-17.582 69 129.316
-17.602 69 129.294
-17.63 69 129.29
-17.654 69 129.288
-17.678 69 129.28
-17.702 69 129.27
-17.73 69 129.268
-17.752 69 129.262
-17.774 69 129.242
-17.8 69 129.22
-17.826 69 129.212
-17.848 69 129.206
-17.874 69 129.2
-17.896 69 129.192
-17.922 69 129.184
-17.946 69 129.172
-17.972 69 129.164
-17.996 69 129.164
-18.02 69 129.152
-18.042 69 129.13
-18.07 69 129.112
-18.092 69 129.108
-18.118 69 129.102
-18.142 69 129.094
-18.164 69 129.078
-18.19 69 129.062
-18.214 69 129.042
-18.238 69 129.04
-18.262 69 129.038
-18.288 69 129.03
-18.312 69 129.022
-18.338 69 129.016
-18.364 69 129.004
-18.386 69 128.998
-18.41 69 128.994
-18.434 69 128.98
-18.46 69 128.96
-18.484 69 128.952
-18.508 69 128.942
-18.53 69 128.93
-18.556 69 128.912
-18.58 69 128.902
-18.604 69 128.898
-18.628 69 128.888
-18.652 69 128.872
-18.676 69 128.86
-18.702 69 128.858
-18.726 69 128.856
-18.752 69 128.844
-18.774 69 128.83
-18.8 69 128.812
-18.822 69 128.802
-18.848 69 128.788
-18.872 69 128.788
-18.896 69 128.782
-18.92 69 128.766
-18.944 69 128.752
-18.968 69 128.742
-18.994 69 128.724
-19.016 69 128.714
-19.04 69 128.714
-19.066 69 128.712
-19.092 69 128.702
-19.114 69 128.682
-19.138 69 128.668
-19.162 69 128.664
-19.188 69 128.658
-19.212 69 128.652
-19.236 69 128.646
-19.26 69 128.634
-19.286 69 128.62
-19.308 69 128.614
-19.332 69 128.6
-19.356 69 128.582
-19.382 69 128.562
-19.404 69 128.562
-19.432 69 128.562
-19.454 69 128.56
-19.478 69 128.54
-19.502 69 128.53
-19.528 69 128.524
-19.552 69 128.518
-19.576 69 128.512
-19.6 69 128.5
-19.624 69 128.488
-19.648 69 128.478
-19.672 69 128.47
-19.696 69 128.458
-19.72 69 128.444
-19.744 69 128.436
-19.768 69 128.424
-19.792 69 128.408
-19.818 69 128.39
-19.838 69 128.376
-19.864 69 128.368
-19.888 69 128.364
-19.914 69 128.364
-19.938 69 128.35
-19.96 69 128.33
-19.984 69 128.322
-20.008 69 128.314
-20.032 69 128.306
-20.06 69 128.298
-20.082 69 128.292
-20.108 69 128.28
-20.13 69 128.266
-20.152 69 128.248
-20.178 69 128.232
-20.202 69 128.224
-20.226 69 128.218
-20.25 69 128.208
-20.274 69 128.202
-20.3 69 128.19
-20.322 69 128.184
-20.346 69 128.172
-20.37 69 128.164
-20.396 69 128.16
-20.418 69 128.156
-20.444 69 128.138
-20.468 69 128.128
-20.494 69 128.124
-20.514 69 128.11
-20.538 69 128.088
-20.562 69 128.078
-20.59 69 128.076
-20.612 69 128.076
-20.636 69 128.064
-20.658 69 128.046
-20.682 69 128.04
-20.708 69 128.038
-20.732 69 128.03
-20.756 69 128.022
-20.782 69 128.01
-20.802 69 127.99
-20.828 69 127.966
-20.852 69 127.964
-20.878 69 127.96
-20.9 69 127.958
-20.924 69 127.954
-20.948 69 127.938
-20.972 69 127.92
-20.996 69 127.906
-21.02 69 127.896
-21.042 69 127.888
-21.068 69 127.886
-21.092 69 127.88
-21.116 69 127.858
-21.138 69 127.84
-21.164 69 127.836
-21.188 69 127.834
-21.214 69 127.826
-21.236 69 127.816
-21.26 69 127.808
-21.286 69 127.804
-21.31 69 127.788
-21.332 69 127.772
-21.356 69 127.762
-21.38 69 127.748
-21.404 69 127.734
-21.428 69 127.726
-21.452 69 127.718
-21.476 69 127.712
-21.5 69 127.698
-21.524 69 127.692
-21.548 69 127.686
-21.572 69 127.68
-21.598 69 127.67
-21.62 69 127.654
-21.642 69 127.642
-21.67 69 127.64
-21.694 69 127.632
-21.716 69 127.62
-21.738 69 127.602
-21.764 69 127.584
-21.786 69 127.574
-21.812 69 127.568
-21.836 69 127.556
-21.858 69 127.542
-21.882 69 127.53
-21.906 69 127.522
-21.932 69 127.512
-21.954 69 127.5
-21.976 69 127.488
-22 69 127.484
-22.028 69 127.47
-22.05 69 127.46
-22.076 69 127.454
-22.098 69 127.452
-22.124 69 127.45
-22.148 69 127.446
-22.17 69 127.436
-22.194 69 127.424
-22.22 69 127.41
-22.242 69 127.402
-22.266 69 127.378
-22.288 69 127.362
-22.312 69 127.352
-22.336 69 127.336
-22.358 69 127.312
-22.382 69 127.308
-22.408 69 127.308
-22.432 69 127.312
-22.46 69 127.312
-22.48 69 127.296
-22.504 69 127.278
-22.526 69 127.27
-22.552 69 127.266
-22.576 69 127.256
-22.6 69 127.24
-22.624 69 127.238
-22.65 69 127.232
-22.67 69 127.214
-22.696 69 127.202
-22.718 69 127.202
-22.744 69 127.202
-22.768 69 127.19
-22.792 69 127.178
-22.814 69 127.168
-22.838 69 127.156
-22.862 69 127.142
-22.886 69 127.132
-22.91 69 127.122
-22.932 69 127.11
-22.956 69 127.1
-22.984 69 127.092
-23.006 69 127.084
-23.03 69 127.068
-23.052 69 127.058
-23.076 69 127.044
-23.098 69 127.042
-23.124 69 127.022
-23.146 69 127.012
-23.172 69 127.006
-23.194 69 127.004
-23.218 69 126.996
-23.242 69 126.984
-23.268 69 126.968
-23.288 69 126.95
-23.314 69 126.938
-23.336 69 126.938
-23.36 69 126.932
-23.386 69 126.924
-23.408 69 126.912
-23.432 69 126.898
-23.456 69 126.89
-23.48 69 126.888
-23.504 69 126.886
-23.528 69 126.872
-23.552 69 126.854
-23.574 69 126.84
-23.598 69 126.828
-23.622 69 126.814
-23.644 69 126.802
-23.67 69 126.802
-23.694 69 126.798
-23.718 69 126.792
-23.742 69 126.782
-23.764 69 126.772
-23.79 69 126.76
-23.812 69 126.74
-23.834 69 126.716
-23.856 69 126.714
-23.882 69 126.714
-23.906 69 126.714
-23.932 69 126.706
-23.956 69 126.7
-23.982 69 126.7
-24.006 69 126.7
-24.028 69 126.678
-24.048 69 126.652
-24.074 69 126.636
-24.096 69 126.632
-24.12 69 126.626
-24.144 69 126.618
-24.168 69 126.606
-24.192 69 126.594
-24.214 69 126.568
-24.236 69 126.566
-24.264 69 126.566
-24.288 69 126.566
-24.31 69 126.558
-24.334 69 126.54
-24.358 69 126.524
-24.38 69 126.512
-24.404 69 126.508
-24.428 69 126.506
-24.452 69 126.494
-24.476 69 126.49
-24.502 69 126.48
-24.524 69 126.466
-24.548 69 126.456
-24.57 69 126.45
